0.006 0 -0.2595 -6.125e-08 5.81512e-19 -1 
0.0159801 0 -0.258522 0.195204 -5.14879e-08 -0.980763 
0.01564 0.00224611 -0.258522 0.188443 0.0580469 -0.980367 
0.014643 0.00433916 -0.258522 0.168685 0.111957 -0.979291 
0.013057 0.0061365 -0.258522 0.137432 0.157991 -0.97783 
0.01099 0.00751564 -0.258522 0.0969699 0.193083 -0.976379 
0.00858303 0.00838261 -0.258522 0.0501179 0.215017 -0.975324 
0.006 0.00867832 -0.258522 6.99332e-08 0.222475 -0.974939 
0.00341697 0.00838261 -0.258522 -0.0501177 0.215017 -0.975324 
0.00100997 0.00751564 -0.258522 -0.0969705 0.193082 -0.976379 
-0.00105697 0.0061365 -0.258522 -0.137432 0.15799 -0.97783 
-0.00264299 0.00433916 -0.258522 -0.168685 0.111957 -0.979291 
-0.00364 0.00224611 -0.258522 -0.188443 0.0580453 -0.980367 
-0.00398006 -2.79119e-18 -0.258522 -0.195204 3.22703e-08 -0.980763 
-0.00364 -0.00224611 -0.258522 -0.188443 -0.0580455 -0.980367 
-0.00264299 -0.00433916 -0.258522 -0.168685 -0.111957 -0.979291 
-0.00105697 -0.0061365 -0.258522 -0.137432 -0.15799 -0.97783 
0.00100997 -0.00751564 -0.258522 -0.0969703 -0.193082 -0.976379 
0.00341697 -0.00838261 -0.258522 -0.0501171 -0.215017 -0.975323 
0.006 -0.00867832 -0.258522 6.50843e-09 -0.222475 -0.974938 
0.00858303 -0.00838261 -0.258522 0.0501175 -0.215017 -0.975323 
0.01099 -0.00751564 -0.258522 0.0969697 -0.193083 -0.976379 
0.013057 -0.0061365 -0.258522 0.137431 -0.157991 -0.97783 
0.014643 -0.00433916 -0.258522 0.168685 -0.111957 -0.979291 
0.01564 -0.00224611 -0.258522 0.188443 -0.0580469 -0.980367 
0.0254597 0 -0.255638 0.387246 -1.65828e-07 -0.921976 
0.0247966 0.0043796 -0.255638 0.373403 0.114951 -0.92052 
0.0228526 0.00846073 -0.255638 0.333213 0.221025 -0.916579 
0.0197601 0.0119653 -0.255638 0.270343 0.310602 -0.911285 
0.0157298 0.0146544 -0.255638 0.189967 0.378036 -0.906091 
0.0110365 0.0163449 -0.255638 0.0978891 0.419742 -0.902349 
0.006 0.0169215 -0.255638 4.92881e-08 0.433836 -0.900992 
0.000963463 0.0163449 -0.255638 -0.0978892 0.419742 -0.902349 
-0.00372984 0.0146544 -0.255638 -0.189967 0.378037 -0.906091 
-0.00776008 0.0119653 -0.255638 -0.270343 0.310602 -0.911285 
-0.0108526 0.00846073 -0.255638 -0.333212 0.221025 -0.916579 
-0.0127966 0.0043796 -0.255638 -0.373403 0.11495 -0.92052 
-0.0134597 -5.44243e-18 -0.255638 -0.387246 -8.80522e-08 -0.921976 
-0.0127966 -0.0043796 -0.255638 -0.373403 -0.114949 -0.92052 
-0.0108526 -0.00846073 -0.255638 -0.333212 -0.221024 -0.916579 
-0.00776008 -0.0119653 -0.255638 -0.270343 -0.310603 -0.911285 
-0.00372984 -0.0146544 -0.255638 -0.189967 -0.378037 -0.906091 
0.000963463 -0.0163449 -0.255638 -0.0978905 -0.419741 -0.90235 
0.006 -0.0169215 -0.255638 1.06822e-07 -0.433834 -0.900993 
0.0110365 -0.0163449 -0.255638 0.0978908 -0.41974 -0.90235 
0.0157298 -0.0146544 -0.255638 0.189966 -0.378038 -0.90609 
0.0197601 -0.0119653 -0.255638 0.270342 -0.310604 -0.911285 
0.0228526 -0.00846073 -0.255638 0.333213 -0.221023 -0.916579 
0.0247966 -0.0043796 -0.255638 0.373404 -0.11495 -0.920519 
0.0339635 0 -0.250991 0.57106 -6.54983e-08 -0.820908 
0.0330107 0.00629347 -0.250991 0.549658 0.16905 -0.818106 
0.0302171 0.0121581 -0.250991 0.488141 0.323499 -0.810596 
0.0257732 0.0171941 -0.250991 0.393527 0.451736 -0.800669 
0.0199818 0.0210584 -0.250991 0.274834 0.546467 -0.791101 
0.0132375 0.0234876 -0.250991 0.141002 0.604132 -0.784311 
0.006 0.0243161 -0.250991 4.67554e-08 0.623443 -0.781869 
-0.00123749 0.0234876 -0.250991 -0.141002 0.604132 -0.784311 
-0.00798176 0.0210584 -0.250991 -0.274834 0.546467 -0.791101 
-0.0137732 0.0171941 -0.250991 -0.393527 0.451737 -0.800669 
-0.0182171 0.0121581 -0.250991 -0.488141 0.323499 -0.810597 
-0.0210107 0.00629347 -0.250991 -0.549658 0.16905 -0.818106 
-0.0219635 -7.82075e-18 -0.250991 -0.57106 -6.2377e-08 -0.820908 
-0.0210107 -0.00629347 -0.250991 -0.549659 -0.16905 -0.818106 
-0.0182171 -0.0121581 -0.250991 -0.488141 -0.323499 -0.810597 
-0.0137732 -0.0171941 -0.250991 -0.393526 -0.451739 -0.800668 
-0.00798176 -0.0210584 -0.250991 -0.274834 -0.546468 -0.7911 
-0.00123749 -0.0234876 -0.250991 -0.141004 -0.604129 -0.784312 
0.006 -0.0243161 -0.250991 8.22234e-08 -0.623441 -0.78187 
0.0132375 -0.0234876 -0.250991 0.141004 -0.604129 -0.784312 
0.0199818 -0.0210584 -0.250991 0.274833 -0.546468 -0.7911 
0.0257732 -0.0171941 -0.250991 0.393526 -0.451739 -0.800668 
0.0302171 -0.0121581 -0.250991 0.488141 -0.323499 -0.810597 
0.0330107 -0.00629347 -0.250991 0.549658 -0.16905 -0.818106 
0.0410651 0 -0.244816 0.738103 1.12336e-07 -0.674688 
0.0398703 0.00789176 -0.244816 0.708878 0.217774 -0.67087 
0.0363673 0.0152457 -0.244816 0.625879 0.414337 -0.660757 
0.0307948 0.0215607 -0.244816 0.500773 0.574273 -0.64764 
0.0235326 0.0264064 -0.244816 0.347256 0.689825 -0.635259 
0.0150755 0.0294525 -0.244816 0.177282 0.758886 -0.626628 
0.006 0.0304914 -0.244816 2.07783e-08 0.78178 -0.623555 
-0.00307553 0.0294525 -0.244816 -0.177282 0.758886 -0.626628 
-0.0115326 0.0264064 -0.244816 -0.347256 0.689825 -0.635259 
-0.0187948 0.0215607 -0.244816 -0.500773 0.574273 -0.64764 
-0.0243673 0.0152457 -0.244816 -0.625879 0.414337 -0.660757 
-0.0278703 0.00789176 -0.244816 -0.708878 0.217774 -0.67087 
-0.0290651 -9.80691e-18 -0.244816 -0.738103 1.14354e-07 -0.674688 
-0.0278703 -0.00789176 -0.244816 -0.708877 -0.217772 -0.670872 
-0.0243673 -0.0152457 -0.244816 -0.625879 -0.414337 -0.660758 
-0.0187948 -0.0215607 -0.244816 -0.500773 -0.574272 -0.64764 
-0.0115326 -0.0264064 -0.244816 -0.347257 -0.689824 -0.635261 
-0.00307553 -0.0294525 -0.244816 -0.17728 -0.758888 -0.626626 
0.006 -0.0304914 -0.244816 5.18775e-08 -0.781782 -0.623552 
0.0150755 -0.0294525 -0.244816 0.17728 -0.758888 -0.626626 
0.0235326 -0.0264064 -0.244816 0.347257 -0.689824 -0.635261 
0.0307948 -0.0215607 -0.244816 0.500774 -0.574271 -0.64764 
0.0363673 -0.0152457 -0.244816 0.625879 -0.414337 -0.660758 
0.0398703 -0.00789176 -0.244816 0.708877 -0.217772 -0.670872 
0.0464085 0 -0.237421 0.875521 2.16668e-08 -0.483181 
0.0450316 0.00909433 -0.237421 0.839 0.257463 -0.479366 
0.0409947 0.0175689 -0.237421 0.736512 0.487075 -0.469369 
0.0345731 0.0248462 -0.237421 0.585016 0.67025 -0.456641 
0.0262042 0.0304302 -0.237421 0.402973 0.799817 -0.444866 
0.0164585 0.0339405 -0.237421 0.204794 0.875944 -0.436786 
0.006 0.0351378 -0.237421 -4.7387e-08 0.900944 -0.433935 
-0.00445848 0.0339405 -0.237421 -0.204794 0.875944 -0.436786 
-0.0142042 0.0304302 -0.237421 -0.402973 0.799817 -0.444865 
-0.0225731 0.0248462 -0.237421 -0.585016 0.67025 -0.456641 
-0.0289947 0.0175689 -0.237421 -0.736512 0.487075 -0.469369 
-0.0330316 0.00909433 -0.237421 -0.839 0.257463 -0.479366 
-0.0344085 -1.13013e-17 -0.237421 -0.875521 2.02456e-08 -0.483181 
-0.0330316 -0.00909433 -0.237421 -0.839 -0.257463 -0.479366 
-0.0289947 -0.0175689 -0.237421 -0.736513 -0.487073 -0.469371 
-0.0225731 -0.0248462 -0.237421 -0.585016 -0.670249 -0.456642 
-0.0142042 -0.0304302 -0.237421 -0.402973 -0.799818 -0.444865 
-0.00445848 -0.0339405 -0.237421 -0.204793 -0.875945 -0.436784 
0.006 -0.0351378 -0.237421 2.18352e-08 -0.900946 -0.433931 
0.0164585 -0.0339405 -0.237421 0.204793 -0.875945 -0.436784 
0.0262042 -0.0304302 -0.237421 0.402972 -0.799818 -0.444865 
0.0345731 -0.0248462 -0.237421 0.585016 -0.670249 -0.456642 
0.0409947 -0.0175689 -0.237421 0.736513 -0.487073 -0.469371 
0.0450316 -0.00909433 -0.237421 0.839 -0.257463 -0.479366 
0.0497255 0 -0.229178 0.967459 -4.65787e-08 -0.253027 
0.0482356 0.00984087 -0.229178 0.92556 0.28379 -0.250604 
0.0438674 0.0190111 -0.229178 0.809012 0.534616 -0.244304 
0.0369186 0.0268857 -0.229178 0.639187 0.731819 -0.236391 
0.0278628 0.0329282 -0.229178 0.438184 0.86918 -0.229174 
0.017317 0.0367266 -0.229178 0.221976 0.948908 -0.224276 
0.006 0.0380222 -0.229178 7.25452e-08 0.974919 -0.222559 
-0.005317 0.0367266 -0.229178 -0.221976 0.948908 -0.224277 
-0.0158628 0.0329282 -0.229178 -0.438184 0.86918 -0.229175 
-0.0249186 0.0268857 -0.229178 -0.639187 0.731819 -0.236391 
-0.0318674 0.0190111 -0.229178 -0.809012 0.534616 -0.244304 
-0.0362356 0.00984087 -0.229178 -0.92556 0.28379 -0.250604 
-0.0377255 -1.2229e-17 -0.229178 -0.967459 -4.06953e-08 -0.253027 
-0.0362356 -0.00984087 -0.229178 -0.92556 -0.283791 -0.250602 
-0.0318674 -0.0190111 -0.229178 -0.809013 -0.534616 -0.244304 
-0.0249186 -0.0268857 -0.229178 -0.639186 -0.73182 -0.236391 
-0.0158628 -0.0329282 -0.229178 -0.438184 -0.86918 -0.229174 
-0.005317 -0.0367266 -0.229178 -0.221977 -0.948908 -0.224278 
0.006 -0.0380222 -0.229178 -4.8883e-08 -0.974919 -0.222559 
0.017317 -0.0367266 -0.229178 0.221977 -0.948908 -0.224278 
0.0278628 -0.0329282 -0.229178 0.438184 -0.86918 -0.229174 
0.0369186 -0.0268857 -0.229178 0.639186 -0.73182 -0.236391 
0.0438674 -0.0190111 -0.229178 0.809013 -0.534616 -0.244304 
0.0482356 -0.00984087 -0.229178 0.92556 -0.283791 -0.250602 
0.05085 0 -0.2205 0.997925 -4.78087e-09 -0.064393 
0.0493218 0.0100939 -0.2205 0.954154 0.292455 -0.0637216 
0.0448412 0.0195 -0.2205 0.832769 0.55014 -0.0619875 
0.0377137 0.0275772 -0.2205 0.656756 0.751726 -0.0598227 
0.028425 0.033775 -0.2205 0.449497 0.891406 -0.0578603 
0.017608 0.0376711 -0.2205 0.227463 0.972144 -0.0565372 
0.006 0.039 -0.2205 1.47105e-07 0.998427 -0.0560741 
-0.00560803 0.0376711 -0.2205 -0.227463 0.972144 -0.0565375 
-0.016425 0.033775 -0.2205 -0.449498 0.891406 -0.0578606 
-0.0257137 0.0275772 -0.2205 -0.656756 0.751726 -0.0598227 
-0.0328412 0.0195 -0.2205 -0.832769 0.55014 -0.0619875 
-0.0373218 0.0100939 -0.2205 -0.954154 0.292455 -0.0637215 
-0.03885 -1.25435e-17 -0.2205 -0.997925 -4.78085e-09 -0.0643928 
-0.0373218 -0.0100939 -0.2205 -0.954154 -0.292454 -0.0637224 
-0.0328412 -0.0195 -0.2205 -0.832769 -0.55014 -0.0619869 
-0.0257137 -0.0275772 -0.2205 -0.656757 -0.751726 -0.0598233 
-0.016425 -0.033775 -0.2205 -0.449499 -0.891405 -0.0578623 
-0.00560803 -0.0376711 -0.2205 -0.227463 -0.972144 -0.0565373 
0.006 -0.039 -0.2205 7.38874e-08 -0.998427 -0.056075 
0.017608 -0.0376711 -0.2205 0.227463 -0.972144 -0.0565372 
0.028425 -0.033775 -0.2205 0.449499 -0.891405 -0.0578623 
0.0377137 -0.0275772 -0.2205 0.656756 -0.751726 -0.0598233 
0.0448412 -0.0195 -0.2205 0.832769 -0.55014 -0.061987 
0.0493218 -0.0100939 -0.2205 0.954154 -0.292454 -0.0637226 
0.019 0 0.0795 -2.82856e-08 -3.48498e-18 1 
0.0319741 0 0.0785222 0.151947 -3.9218e-07 0.988389 
0.031532 0.0023135 0.0785222 0.14659 0.0569669 0.987556 
0.0302359 0.00446933 0.0785222 0.130993 0.109688 0.985297 
0.0281741 0.00632059 0.0785222 0.106475 0.154428 0.98225 
0.025487 0.00774111 0.0785222 0.0749548 0.188297 0.979248 
0.0223579 0.00863409 0.0785222 0.0386742 0.209345 0.977077 
0.019 0.00893867 0.0785222 -2.08539e-09 0.216475 0.976288 
0.0156421 0.00863409 0.0785222 -0.0386743 0.209345 0.977077 
0.012513 0.00774111 0.0785222 -0.0749549 0.188297 0.979248 
0.00982594 0.00632059 0.0785222 -0.106476 0.154428 0.98225 
0.00776411 0.00446933 0.0785222 -0.130993 0.109689 0.985297 
0.006468 0.0023135 0.0785222 -0.14659 0.0569673 0.987556 
0.00602592 -2.87493e-18 0.0785222 -0.151947 -9.7602e-10 0.988389 
0.006468 -0.0023135 0.0785222 -0.14659 -0.0569671 0.987556 
0.00776411 -0.00446933 0.0785222 -0.130993 -0.109688 0.985297 
0.00982594 -0.00632059 0.0785222 -0.106475 -0.154429 0.98225 
0.012513 -0.00774111 0.0785222 -0.074955 -0.188298 0.979248 
0.0156421 -0.00863409 0.0785222 -0.0386749 -0.209344 0.977077 
0.019 -0.00893867 0.0785222 -1.30775e-10 -0.216475 0.976288 
0.0223579 -0.00863409 0.0785222 0.0386749 -0.209344 0.977077 
0.025487 -0.00774111 0.0785222 0.0749546 -0.188298 0.979247 
0.0281741 -0.00632059 0.0785222 0.106475 -0.154429 0.98225 
0.0302359 -0.00446933 0.0785222 0.130993 -0.109687 0.985297 
0.031532 -0.0023135 0.0785222 0.14659 -0.0569675 0.987556 
0.0442976 0 0.0756378 0.308699 -1.98723e-07 0.95116 
0.0434356 0.00451099 0.0756378 0.297046 0.115277 0.947879 
0.0409084 0.00871455 0.0756378 0.263606 0.220441 0.939105 
0.0368881 0.0123242 0.0756378 0.212315 0.307546 0.927544 
0.0316488 0.0150941 0.0756378 0.148151 0.371726 0.916445 
0.0255475 0.0168352 0.0756378 0.0759648 0.410717 0.908593 
0.019 0.0174291 0.0756378 4.60081e-08 0.423761 0.905774 
0.0124525 0.0168352 0.0756378 -0.0759649 0.410717 0.908593 
0.0063512 0.0150941 0.0756378 -0.148151 0.371726 0.916445 
0.0011119 0.0123242 0.0756378 -0.212315 0.307545 0.927544 
-0.00290836 0.00871455 0.0756378 -0.263606 0.220441 0.939105 
-0.0054356 0.00451099 0.0756378 -0.297046 0.115277 0.947879 
-0.00629759 -5.6057e-18 0.0756378 -0.308699 3.34551e-08 0.95116 
-0.0054356 -0.00451099 0.0756378 -0.297046 -0.115278 0.947879 
-0.00290836 -0.00871455 0.0756378 -0.263606 -0.220441 0.939105 
0.0011119 -0.0123242 0.0756378 -0.212315 -0.307544 0.927545 
0.0063512 -0.0150941 0.0756378 -0.148151 -0.371727 0.916444 
0.0124525 -0.0168352 0.0756378 -0.0759647 -0.410718 0.908592 
0.019 -0.0174291 0.0756378 7.0058e-10 -0.42376 0.905774 
0.0255475 -0.0168352 0.0756378 0.0759647 -0.410718 0.908592 
0.0316488 -0.0150941 0.0756378 0.14815 -0.371728 0.916444 
0.0368881 -0.0123242 0.0756378 0.212315 -0.307545 0.927544 
0.0409084 -0.00871455 0.0756378 0.263606 -0.22044 0.939105 
0.0434356 -0.00451099 0.0756378 0.297046 -0.115277 0.947879 
0.0553526 0 0.0709914 0.473777 6.35361e-07 0.880645 
0.0541139 0.00648227 0.0709914 0.453824 0.175699 0.873598 
0.0504823 0.0125228 0.0709914 0.397969 0.332064 0.855192 
0.0447051 0.0177099 0.0709914 0.315724 0.456421 0.831864 
0.0371763 0.0216901 0.0709914 0.217261 0.54413 0.810383 
0.0284087 0.0241922 0.0709914 0.110346 0.595565 0.795692 
0.019 0.0250456 0.0709914 3.25246e-08 0.612442 0.790516 
0.00959126 0.0241922 0.0709914 -0.110346 0.595565 0.795692 
0.000823714 0.0216901 0.0709914 -0.217261 0.54413 0.810383 
-0.00670515 0.0177099 0.0709914 -0.315724 0.456421 0.831864 
-0.0124823 0.0125228 0.0709914 -0.39797 0.332064 0.855192 
-0.0161139 0.00648227 0.0709914 -0.453824 0.175698 0.873598 
-0.0173526 -8.05538e-18 0.0709914 -0.473777 7.0394e-08 0.880645 
-0.0161139 -0.00648227 0.0709914 -0.453824 -0.175698 0.873598 
-0.0124823 -0.0125228 0.0709914 -0.397969 -0.332064 0.855192 
-0.00670515 -0.0177099 0.0709914 -0.315725 -0.456419 0.831865 
0.000823714 -0.0216901 0.0709914 -0.217261 -0.54413 0.810383 
0.00959126 -0.0241922 0.0709914 -0.110344 -0.595567 0.795691 
0.019 -0.0250456 0.0709914 5.81377e-08 -0.612443 0.790515 
0.0284087 -0.0241922 0.0709914 0.110344 -0.595567 0.795691 
0.0371763 -0.0216901 0.0709914 0.217261 -0.54413 0.810383 
0.0447051 -0.0177099 0.0709914 0.315725 -0.456419 0.831865 
0.0504823 -0.0125228 0.0709914 0.397969 -0.332065 0.855192 
0.0541139 -0.00648227 0.0709914 0.453824 -0.175698 0.873598 
0.0645847 0 0.0648161 0.646409 2.79239e-07 0.762991 
0.0630314 0.00812851 0.0648161 0.615101 0.237325 0.751883 
0.0584775 0.0157031 0.0648161 0.53045 0.441281 0.723805 
0.0512332 0.0222075 0.0648161 0.412466 0.594764 0.69002 
0.0417923 0.0271985 0.0648161 0.278934 0.697071 0.660521 
0.0307982 0.030336 0.0648161 0.140072 0.754517 0.641158 
0.019 0.0314062 0.0648161 1.11052e-08 0.772937 0.634482 
0.00720181 0.030336 0.0648161 -0.140071 0.754517 0.641158 
-0.00379234 0.0271985 0.0648161 -0.278934 0.697071 0.660521 
-0.0132332 0.0222075 0.0648161 -0.412467 0.594764 0.690019 
-0.0204775 0.0157031 0.0648161 -0.530451 0.441281 0.723804 
-0.0250314 0.00812851 0.0648161 -0.615101 0.237324 0.751883 
-0.0265847 -1.01011e-17 0.0648161 -0.646409 4.16803e-08 0.762991 
-0.0250314 -0.00812851 0.0648161 -0.615101 -0.237325 0.751883 
-0.0204775 -0.0157031 0.0648161 -0.530451 -0.441283 0.723804 
-0.0132332 -0.0222075 0.0648161 -0.412467 -0.594764 0.69002 
-0.00379234 -0.0271985 0.0648161 -0.278935 -0.69707 0.660522 
0.00720181 -0.030336 0.0648161 -0.140072 -0.754516 0.641159 
0.019 -0.0314062 0.0648161 4.20413e-08 -0.772937 0.634483 
0.0307982 -0.030336 0.0648161 0.140072 -0.754516 0.641159 
0.0417923 -0.0271985 0.0648161 0.278935 -0.697069 0.660522 
0.0512332 -0.0222075 0.0648161 0.412466 -0.594764 0.69002 
0.0584775 -0.0157031 0.0648161 0.53045 -0.441283 0.723803 
0.0630314 -0.00812851 0.0648161 0.615101 -0.237325 0.751883 
0.071531 0 0.0574215 0.814824 -9.988e-07 0.579709 
0.069741 0.00936716 0.0574215 0.769108 0.295548 0.566679 
0.0644932 0.018096 0.0574215 0.650387 0.539265 0.534968 
0.056145 0.0255916 0.0574215 0.494738 0.711536 0.49895 
0.0452655 0.0313431 0.0574215 0.328675 0.819647 0.469204 
0.032596 0.0349587 0.0574215 0.163246 0.877746 0.450459 
0.019 0.0361919 0.0574215 2.47388e-08 0.895962 0.44413 
0.00540398 0.0349587 0.0574215 -0.163246 0.877746 0.450459 
-0.0072655 0.0313431 0.0574215 -0.328675 0.819647 0.469203 
-0.018145 0.0255916 0.0574215 -0.494738 0.711537 0.498949 
-0.0264932 0.018096 0.0574215 -0.650387 0.539265 0.534968 
-0.031741 0.00936716 0.0574215 -0.769107 0.295549 0.566679 
-0.033531 -1.16404e-17 0.0574215 -0.814823 -6.88452e-08 0.579709 
-0.031741 -0.00936716 0.0574215 -0.769107 -0.295546 0.56668 
-0.0264932 -0.018096 0.0574215 -0.650386 -0.539265 0.534968 
-0.018145 -0.0255916 0.0574215 -0.494737 -0.711539 0.498947 
-0.0072655 -0.0313431 0.0574215 -0.328675 -0.819647 0.469203 
0.00540398 -0.0349587 0.0574215 -0.163247 -0.877745 0.450459 
0.019 -0.0361919 0.0574215 1.29345e-08 -0.895962 0.44413 
0.032596 -0.0349587 0.0574215 0.163247 -0.877745 0.450459 
0.0452655 -0.0313431 0.0574215 0.328675 -0.819647 0.469203 
0.056145 -0.0255916 0.0574215 0.494737 -0.711539 0.498947 
0.0644932 -0.018096 0.0574215 0.650386 -0.539265 0.534968 
0.069741 -0.00936716 0.0574215 0.769107 -0.295546 0.56668 
0.0758432 0 0.0491783 0.94775 -1.25127e-06 0.319014 
0.0739063 0.0101361 0.0491783 0.888 0.340029 0.309575 
0.0682276 0.0195814 0.0491783 0.738162 0.610372 0.287338 
0.0591942 0.0276923 0.0491783 0.551487 0.791556 0.263253 
0.0474216 0.033916 0.0491783 0.361398 0.899862 0.244213 
0.0337121 0.0378284 0.0491783 0.178058 0.95614 0.232578 
0.019 0.0391629 0.0491783 7.08398e-08 0.973495 0.22871 
0.0042879 0.0378284 0.0491783 -0.178058 0.956139 0.232578 
-0.00942159 0.033916 0.0491783 -0.361398 0.899862 0.244213 
-0.0211942 0.0276923 0.0491783 -0.551487 0.791556 0.263253 
-0.0302276 0.0195814 0.0491783 -0.738162 0.610372 0.287338 
-0.0359063 0.0101361 0.0491783 -0.887999 0.34003 0.309575 
-0.0378432 -1.25959e-17 0.0491783 -0.94775 -9.00245e-08 0.319015 
-0.0359063 -0.0101361 0.0491783 -0.888 -0.340028 0.309576 
-0.0302276 -0.0195814 0.0491783 -0.738162 -0.610372 0.287339 
-0.0211942 -0.0276923 0.0491783 -0.551486 -0.791557 0.263252 
-0.00942159 -0.033916 0.0491783 -0.361399 -0.899861 0.244214 
0.0042879 -0.0378284 0.0491783 -0.178057 -0.95614 0.232578 
0.019 -0.0391629 0.0491783 2.75126e-08 -0.973495 0.228708 
0.0337121 -0.0378284 0.0491783 0.178057 -0.95614 0.232577 
0.0474216 -0.033916 0.0491783 0.361399 -0.899861 0.244214 
0.0591942 -0.0276923 0.0491783 0.551486 -0.791557 0.263252 
0.0682276 -0.0195814 0.0491783 0.738162 -0.610372 0.287339 
0.0739063 -0.0101361 0.0491783 0.888 -0.340028 0.309576 
0.077305 0 0.0405 0.996519 -4.08408e-07 0.0833621 
0.0753183 0.0103968 0.0405 0.931039 0.355914 0.0805737 
0.0694936 0.020085 0.0405 0.768929 0.635025 0.0741067 
0.0602279 0.0284045 0.0405 0.57069 0.818406 0.067264 
0.0481525 0.0347882 0.0405 0.372172 0.926093 0.0619715 
0.0340904 0.0388012 0.0405 0.182855 0.981381 0.0587863 
0.019 0.04017 0.0405 1.45514e-07 0.998332 0.057735 
0.00390955 0.0388012 0.0405 -0.182856 0.981381 0.0587867 
-0.0101525 0.0347882 0.0405 -0.372172 0.926092 0.061972 
-0.0222279 0.0284045 0.0405 -0.57069 0.818406 0.0672641 
-0.0314936 0.020085 0.0405 -0.768928 0.635025 0.0741066 
-0.0373183 0.0103968 0.0405 -0.931038 0.355915 0.0805738 
-0.039305 -1.29198e-17 0.0405 -0.996519 -1.48569e-08 0.0833623 
-0.0373183 -0.0103968 0.0405 -0.931038 -0.355916 0.0805724 
-0.0314936 -0.020085 0.0405 -0.768928 -0.635026 0.0741052 
-0.0222279 -0.0284045 0.0405 -0.570691 -0.818405 0.0672655 
-0.0101525 -0.0347882 0.0405 -0.372174 -0.926092 0.0619743 
0.00390955 -0.0388012 0.0405 -0.182856 -0.98138 0.0587876 
0.019 -0.04017 0.0405 7.22175e-08 -0.998332 0.0577361 
0.0340904 -0.0388012 0.0405 0.182856 -0.981381 0.0587874 
0.0481525 -0.0347882 0.0405 0.372173 -0.926092 0.0619742 
0.0602279 -0.0284045 0.0405 0.570691 -0.818405 0.0672656 
0.0694936 -0.020085 0.0405 0.768928 -0.635026 0.0741051 
0.0753183 -0.0103968 0.0405 0.931038 -0.355915 0.0805722 
0.05085 0 -0.20745 1 0 0 
0.0493218 0.0100939 -0.20745 0.956101 0.293039 0 
0.0448412 0.0195 -0.20745 0.834383 0.551185 0 
0.0377137 0.0275772 -0.20745 0.657947 0.753064 0 
0.028425 0.033775 -0.20745 0.450262 0.892896 0 
0.017608 0.0376711 -0.20745 0.227833 0.9737 0 
0.006 0.039 -0.20745 1.47325e-07 1 0 
-0.00560803 0.0376711 -0.20745 -0.227833 0.9737 0 
-0.016425 0.033775 -0.20745 -0.450262 0.892896 0 
-0.0257137 0.0275772 -0.20745 -0.657947 0.753064 0 
-0.0328412 0.0195 -0.20745 -0.834383 0.551185 0 
-0.0373218 0.0100939 -0.20745 -0.956101 0.293039 0 
-0.03885 -1.25435e-17 -0.20745 -1 -1.96503e-16 0 
-0.0373218 -0.0100939 -0.20745 -0.956101 -0.293039 -0 
-0.0328412 -0.0195 -0.20745 -0.834383 -0.551185 -0 
-0.0257137 -0.0275772 -0.20745 -0.657947 -0.753064 -0 
-0.016425 -0.033775 -0.20745 -0.450262 -0.892896 -0 
-0.00560803 -0.0376711 -0.20745 -0.227833 -0.9737 -0 
0.006 -0.039 -0.20745 1.47325e-07 -1 0 
0.017608 -0.0376711 -0.20745 0.227833 -0.9737 0 
0.028425 -0.033775 -0.20745 0.450262 -0.892896 0 
0.0377137 -0.0275772 -0.20745 0.657947 -0.753064 0 
0.0448412 -0.0195 -0.20745 0.834383 -0.551185 0 
0.0493218 -0.0100939 -0.20745 0.956101 -0.293039 0 
0.05085 0 -0.1944 1 0 0 
0.0493218 0.0100939 -0.1944 0.956101 0.293039 0 
0.0448412 0.0195 -0.1944 0.834383 0.551185 0 
0.0377137 0.0275772 -0.1944 0.657947 0.753064 0 
0.028425 0.033775 -0.1944 0.450262 0.892896 0 
0.017608 0.0376711 -0.1944 0.227833 0.9737 0 
0.006 0.039 -0.1944 1.47325e-07 1 0 
-0.00560803 0.0376711 -0.1944 -0.227833 0.9737 0 
-0.016425 0.033775 -0.1944 -0.450262 0.892896 0 
-0.0257137 0.0275772 -0.1944 -0.657947 0.753064 0 
-0.0328412 0.0195 -0.1944 -0.834383 0.551185 0 
-0.0373218 0.0100939 -0.1944 -0.956101 0.293039 0 
-0.03885 -1.25435e-17 -0.1944 -1 -1.96503e-16 0 
-0.0373218 -0.0100939 -0.1944 -0.956101 -0.293039 -0 
-0.0328412 -0.0195 -0.1944 -0.834383 -0.551185 -0 
-0.0257137 -0.0275772 -0.1944 -0.657947 -0.753064 -0 
-0.016425 -0.033775 -0.1944 -0.450262 -0.892896 -0 
-0.00560803 -0.0376711 -0.1944 -0.227833 -0.9737 -0 
0.006 -0.039 -0.1944 1.47325e-07 -1 0 
0.017608 -0.0376711 -0.1944 0.227833 -0.9737 0 
0.028425 -0.033775 -0.1944 0.450262 -0.892896 0 
0.0377137 -0.0275772 -0.1944 0.657947 -0.753064 0 
0.0448412 -0.0195 -0.1944 0.834383 -0.551185 0 
0.0493218 -0.0100939 -0.1944 0.956101 -0.293039 0 
0.05085 0 -0.18135 1 0 0 
0.0493218 0.0100939 -0.18135 0.956101 0.293039 0 
0.0448412 0.0195 -0.18135 0.834383 0.551185 0 
0.0377137 0.0275772 -0.18135 0.657947 0.753064 0 
0.028425 0.033775 -0.18135 0.450262 0.892896 0 
0.017608 0.0376711 -0.18135 0.227833 0.9737 0 
0.006 0.039 -0.18135 1.47325e-07 1 0 
-0.00560803 0.0376711 -0.18135 -0.227833 0.9737 0 
-0.016425 0.033775 -0.18135 -0.450262 0.892896 0 
-0.0257137 0.0275772 -0.18135 -0.657947 0.753064 0 
-0.0328412 0.0195 -0.18135 -0.834383 0.551185 0 
-0.0373218 0.0100939 -0.18135 -0.956101 0.293039 0 
-0.03885 -1.25435e-17 -0.18135 -1 -1.89485e-16 0 
-0.0373218 -0.0100939 -0.18135 -0.956101 -0.293039 -0 
-0.0328412 -0.0195 -0.18135 -0.834383 -0.551185 -0 
-0.0257137 -0.0275772 -0.18135 -0.657947 -0.753064 -0 
-0.016425 -0.033775 -0.18135 -0.450262 -0.892896 -0 
-0.00560803 -0.0376711 -0.18135 -0.227833 -0.9737 -0 
0.006 -0.039 -0.18135 1.47325e-07 -1 0 
0.017608 -0.0376711 -0.18135 0.227833 -0.9737 0 
0.028425 -0.033775 -0.18135 0.450262 -0.892896 0 
0.0377137 -0.0275772 -0.18135 0.657947 -0.753064 0 
0.0448412 -0.0195 -0.18135 0.834383 -0.551185 0 
0.0493218 -0.0100939 -0.18135 0.956101 -0.293039 0 
0.05085 0 -0.1683 1 0 0 
0.0493218 0.0100939 -0.1683 0.956101 0.293039 0 
0.0448412 0.0195 -0.1683 0.834383 0.551185 0 
0.0377137 0.0275772 -0.1683 0.657947 0.753064 0 
0.028425 0.033775 -0.1683 0.450262 0.892896 0 
0.017608 0.0376711 -0.1683 0.227833 0.9737 0 
0.006 0.039 -0.1683 1.47325e-07 1 0 
-0.00560803 0.0376711 -0.1683 -0.227833 0.9737 0 
-0.016425 0.033775 -0.1683 -0.450262 0.892896 0 
-0.0257137 0.0275772 -0.1683 -0.657947 0.753064 0 
-0.0328412 0.0195 -0.1683 -0.834383 0.551185 0 
-0.0373218 0.0100939 -0.1683 -0.956101 0.293039 0 
-0.03885 -1.25435e-17 -0.1683 -1 -1.89485e-16 0 
-0.0373218 -0.0100939 -0.1683 -0.956101 -0.293039 -0 
-0.0328412 -0.0195 -0.1683 -0.834383 -0.551185 -0 
-0.0257137 -0.0275772 -0.1683 -0.657947 -0.753064 -0 
-0.016425 -0.033775 -0.1683 -0.450262 -0.892896 -0 
-0.00560803 -0.0376711 -0.1683 -0.227833 -0.9737 -0 
0.006 -0.039 -0.1683 1.47325e-07 -1 0 
0.017608 -0.0376711 -0.1683 0.227833 -0.9737 0 
0.028425 -0.033775 -0.1683 0.450262 -0.892896 0 
0.0377137 -0.0275772 -0.1683 0.657947 -0.753064 0 
0.0448412 -0.0195 -0.1683 0.834383 -0.551185 0 
0.0493218 -0.0100939 -0.1683 0.956101 -0.293039 0 
0.05085 0 -0.15525 1 0 0 
0.0493218 0.0100939 -0.15525 0.956101 0.293039 0 
0.0448412 0.0195 -0.15525 0.834383 0.551185 0 
0.0377137 0.0275772 -0.15525 0.657947 0.753064 0 
0.028425 0.033775 -0.15525 0.450262 0.892896 0 
0.017608 0.0376711 -0.15525 0.227833 0.9737 0 
0.006 0.039 -0.15525 1.47325e-07 1 0 
-0.00560803 0.0376711 -0.15525 -0.227833 0.9737 0 
-0.016425 0.033775 -0.15525 -0.450262 0.892896 0 
-0.0257137 0.0275772 -0.15525 -0.657947 0.753064 0 
-0.0328412 0.0195 -0.15525 -0.834383 0.551185 0 
-0.0373218 0.0100939 -0.15525 -0.956101 0.293039 0 
-0.03885 -1.25435e-17 -0.15525 -1 -1.96503e-16 0 
-0.0373218 -0.0100939 -0.15525 -0.956101 -0.293039 -0 
-0.0328412 -0.0195 -0.15525 -0.834383 -0.551185 -0 
-0.0257137 -0.0275772 -0.15525 -0.657947 -0.753064 -0 
-0.016425 -0.033775 -0.15525 -0.450262 -0.892896 -0 
-0.00560803 -0.0376711 -0.15525 -0.227833 -0.9737 -0 
0.006 -0.039 -0.15525 1.47325e-07 -1 0 
0.017608 -0.0376711 -0.15525 0.227833 -0.9737 0 
0.028425 -0.033775 -0.15525 0.450262 -0.892896 0 
0.0377137 -0.0275772 -0.15525 0.657947 -0.753064 0 
0.0448412 -0.0195 -0.15525 0.834383 -0.551185 0 
0.0493218 -0.0100939 -0.15525 0.956101 -0.293039 0 
0.05085 0 -0.1422 1 0 0 
0.0493218 0.0100939 -0.1422 0.956101 0.293039 0 
0.0448412 0.0195 -0.1422 0.834383 0.551185 0 
0.0377137 0.0275772 -0.1422 0.657947 0.753064 0 
0.028425 0.033775 -0.1422 0.450262 0.892896 0 
0.017608 0.0376711 -0.1422 0.227833 0.9737 0 
0.006 0.039 -0.1422 1.47325e-07 1 0 
-0.00560803 0.0376711 -0.1422 -0.227833 0.9737 0 
-0.016425 0.033775 -0.1422 -0.450262 0.892896 0 
-0.0257137 0.0275772 -0.1422 -0.657947 0.753064 0 
-0.0328412 0.0195 -0.1422 -0.834383 0.551185 0 
-0.0373218 0.0100939 -0.1422 -0.956101 0.293039 0 
-0.03885 -1.25435e-17 -0.1422 -1 -1.89485e-16 0 
-0.0373218 -0.0100939 -0.1422 -0.956101 -0.293039 -0 
-0.0328412 -0.0195 -0.1422 -0.834383 -0.551185 -0 
-0.0257137 -0.0275772 -0.1422 -0.657947 -0.753064 -0 
-0.016425 -0.033775 -0.1422 -0.450262 -0.892896 -0 
-0.00560803 -0.0376711 -0.1422 -0.227833 -0.9737 -0 
0.006 -0.039 -0.1422 1.47325e-07 -1 0 
0.017608 -0.0376711 -0.1422 0.227833 -0.9737 0 
0.028425 -0.033775 -0.1422 0.450262 -0.892896 0 
0.0377137 -0.0275772 -0.1422 0.657947 -0.753064 0 
0.0448412 -0.0195 -0.1422 0.834383 -0.551185 0 
0.0493218 -0.0100939 -0.1422 0.956101 -0.293039 0 
0.05085 0 -0.12915 1 0 0 
0.0493218 0.0100939 -0.12915 0.956101 0.293039 0 
0.0448412 0.0195 -0.12915 0.834383 0.551185 0 
0.0377137 0.0275772 -0.12915 0.657947 0.753064 0 
0.028425 0.033775 -0.12915 0.450262 0.892896 0 
0.017608 0.0376711 -0.12915 0.227833 0.9737 0 
0.006 0.039 -0.12915 1.47325e-07 1 0 
-0.00560803 0.0376711 -0.12915 -0.227833 0.9737 0 
-0.016425 0.033775 -0.12915 -0.450262 0.892896 0 
-0.0257137 0.0275772 -0.12915 -0.657947 0.753064 0 
-0.0328412 0.0195 -0.12915 -0.834383 0.551185 0 
-0.0373218 0.0100939 -0.12915 -0.956101 0.293039 0 
-0.03885 -1.25435e-17 -0.12915 -1 -1.89485e-16 0 
-0.0373218 -0.0100939 -0.12915 -0.956101 -0.293039 -0 
-0.0328412 -0.0195 -0.12915 -0.834383 -0.551185 -0 
-0.0257137 -0.0275772 -0.12915 -0.657947 -0.753064 -0 
-0.016425 -0.033775 -0.12915 -0.450262 -0.892896 -0 
-0.00560803 -0.0376711 -0.12915 -0.227833 -0.9737 -0 
0.006 -0.039 -0.12915 1.47325e-07 -1 0 
0.017608 -0.0376711 -0.12915 0.227833 -0.9737 0 
0.028425 -0.033775 -0.12915 0.450262 -0.892896 0 
0.0377137 -0.0275772 -0.12915 0.657947 -0.753064 0 
0.0448412 -0.0195 -0.12915 0.834383 -0.551185 0 
0.0493218 -0.0100939 -0.12915 0.956101 -0.293039 0 
0.05085 0 -0.1161 1 0 0 
0.0493218 0.0100939 -0.1161 0.956101 0.293039 0 
0.0448412 0.0195 -0.1161 0.834383 0.551185 0 
0.0377137 0.0275772 -0.1161 0.657947 0.753064 0 
0.028425 0.033775 -0.1161 0.450262 0.892896 0 
0.017608 0.0376711 -0.1161 0.227833 0.9737 0 
0.006 0.039 -0.1161 1.47325e-07 1 0 
-0.00560803 0.0376711 -0.1161 -0.227833 0.9737 0 
-0.016425 0.033775 -0.1161 -0.450262 0.892896 0 
-0.0257137 0.0275772 -0.1161 -0.657947 0.753064 0 
-0.0328412 0.0195 -0.1161 -0.834383 0.551185 0 
-0.0373218 0.0100939 -0.1161 -0.956101 0.293039 0 
-0.03885 -1.25435e-17 -0.1161 -1 -1.96503e-16 0 
-0.0373218 -0.0100939 -0.1161 -0.956101 -0.293039 -0 
-0.0328412 -0.0195 -0.1161 -0.834383 -0.551185 -0 
-0.0257137 -0.0275772 -0.1161 -0.657947 -0.753064 -0 
-0.016425 -0.033775 -0.1161 -0.450262 -0.892896 -0 
-0.00560803 -0.0376711 -0.1161 -0.227833 -0.9737 -0 
0.006 -0.039 -0.1161 1.47325e-07 -1 0 
0.017608 -0.0376711 -0.1161 0.227833 -0.9737 0 
0.028425 -0.033775 -0.1161 0.450262 -0.892896 0 
0.0377137 -0.0275772 -0.1161 0.657947 -0.753064 0 
0.0448412 -0.0195 -0.1161 0.834383 -0.551185 0 
0.0493218 -0.0100939 -0.1161 0.956101 -0.293039 0 
0.05085 0 -0.10305 1 0 0 
0.0493218 0.0100939 -0.10305 0.956101 0.293039 0 
0.0448412 0.0195 -0.10305 0.834383 0.551185 0 
0.0377137 0.0275772 -0.10305 0.657947 0.753064 0 
0.028425 0.033775 -0.10305 0.450262 0.892896 0 
0.017608 0.0376711 -0.10305 0.227833 0.9737 0 
0.006 0.039 -0.10305 1.47325e-07 1 0 
-0.00560803 0.0376711 -0.10305 -0.227833 0.9737 0 
-0.016425 0.033775 -0.10305 -0.450262 0.892896 0 
-0.0257137 0.0275772 -0.10305 -0.657947 0.753064 0 
-0.0328412 0.0195 -0.10305 -0.834383 0.551185 0 
-0.0373218 0.0100939 -0.10305 -0.956101 0.293039 0 
-0.03885 -1.25435e-17 -0.10305 -1 -1.96503e-16 0 
-0.0373218 -0.0100939 -0.10305 -0.956101 -0.293039 -0 
-0.0328412 -0.0195 -0.10305 -0.834383 -0.551185 -0 
-0.0257137 -0.0275772 -0.10305 -0.657947 -0.753064 -0 
-0.016425 -0.033775 -0.10305 -0.450262 -0.892896 -0 
-0.00560803 -0.0376711 -0.10305 -0.227833 -0.9737 -0 
0.006 -0.039 -0.10305 1.47325e-07 -1 0 
0.017608 -0.0376711 -0.10305 0.227833 -0.9737 0 
0.028425 -0.033775 -0.10305 0.450262 -0.892896 0 
0.0377137 -0.0275772 -0.10305 0.657947 -0.753064 0 
0.0448412 -0.0195 -0.10305 0.834383 -0.551185 0 
0.0493218 -0.0100939 -0.10305 0.956101 -0.293039 0 
0.05085 0 -0.09 1 0 0 
0.0493218 0.0100939 -0.09 0.956101 0.293039 0 
0.0448412 0.0195 -0.09 0.834383 0.551185 0 
0.0377137 0.0275772 -0.09 0.657947 0.753064 0 
0.028425 0.033775 -0.09 0.450262 0.892896 0 
0.017608 0.0376711 -0.09 0.227833 0.9737 0 
0.006 0.039 -0.09 1.47325e-07 1 0 
-0.00560803 0.0376711 -0.09 -0.227833 0.9737 0 
-0.016425 0.033775 -0.09 -0.450262 0.892896 0 
-0.0257137 0.0275772 -0.09 -0.657947 0.753064 0 
-0.0328412 0.0195 -0.09 -0.834383 0.551185 0 
-0.0373218 0.0100939 -0.09 -0.956101 0.293039 0 
-0.03885 -1.25435e-17 -0.09 -1 -1.96503e-16 0 
-0.0373218 -0.0100939 -0.09 -0.956101 -0.293039 -0 
-0.0328412 -0.0195 -0.09 -0.834383 -0.551185 -0 
-0.0257137 -0.0275772 -0.09 -0.657947 -0.753064 -0 
-0.016425 -0.033775 -0.09 -0.450262 -0.892896 -0 
-0.00560803 -0.0376711 -0.09 -0.227833 -0.9737 -0 
0.006 -0.039 -0.09 1.47325e-07 -1 0 
0.017608 -0.0376711 -0.09 0.227833 -0.9737 0 
0.028425 -0.033775 -0.09 0.450262 -0.892896 0 
0.0377137 -0.0275772 -0.09 0.657947 -0.753064 0 
0.0448412 -0.0195 -0.09 0.834383 -0.551185 0 
0.0493218 -0.0100939 -0.09 0.956101 -0.293039 0 
0.05085 0 -0.07695 1 0 0 
0.0493218 0.0100939 -0.07695 0.956101 0.293039 0 
0.0448412 0.0195 -0.07695 0.834383 0.551185 0 
0.0377137 0.0275772 -0.07695 0.657947 0.753064 0 
0.028425 0.033775 -0.07695 0.450262 0.892896 0 
0.017608 0.0376711 -0.07695 0.227833 0.9737 0 
0.006 0.039 -0.07695 1.47325e-07 1 0 
-0.00560803 0.0376711 -0.07695 -0.227833 0.9737 0 
-0.016425 0.033775 -0.07695 -0.450262 0.892896 0 
-0.0257137 0.0275772 -0.07695 -0.657947 0.753064 0 
-0.0328412 0.0195 -0.07695 -0.834383 0.551185 0 
-0.0373218 0.0100939 -0.07695 -0.956101 0.293039 0 
-0.03885 -1.25435e-17 -0.07695 -1 -1.96503e-16 0 
-0.0373218 -0.0100939 -0.07695 -0.956101 -0.293039 -0 
-0.0328412 -0.0195 -0.07695 -0.834383 -0.551185 -0 
-0.0257137 -0.0275772 -0.07695 -0.657947 -0.753064 -0 
-0.016425 -0.033775 -0.07695 -0.450262 -0.892896 -0 
-0.00560803 -0.0376711 -0.07695 -0.227833 -0.9737 -0 
0.006 -0.039 -0.07695 1.47325e-07 -1 0 
0.017608 -0.0376711 -0.07695 0.227833 -0.9737 0 
0.028425 -0.033775 -0.07695 0.450262 -0.892896 0 
0.0377137 -0.0275772 -0.07695 0.657947 -0.753064 0 
0.0448412 -0.0195 -0.07695 0.834383 -0.551185 0 
0.0493218 -0.0100939 -0.07695 0.956101 -0.293039 0 
0.05085 0 -0.0639 1 0 0 
0.0493218 0.0100939 -0.0639 0.956101 0.293039 0 
0.0448412 0.0195 -0.0639 0.834383 0.551185 0 
0.0377137 0.0275772 -0.0639 0.657947 0.753064 0 
0.028425 0.033775 -0.0639 0.450262 0.892896 0 
0.017608 0.0376711 -0.0639 0.227833 0.9737 0 
0.006 0.039 -0.0639 1.47325e-07 1 0 
-0.00560803 0.0376711 -0.0639 -0.227833 0.9737 0 
-0.016425 0.033775 -0.0639 -0.450262 0.892896 0 
-0.0257137 0.0275772 -0.0639 -0.657947 0.753064 0 
-0.0328412 0.0195 -0.0639 -0.834383 0.551185 0 
-0.0373218 0.0100939 -0.0639 -0.956101 0.293039 0 
-0.03885 -1.25435e-17 -0.0639 -1 -1.82467e-16 0 
-0.0373218 -0.0100939 -0.0639 -0.956101 -0.293039 -0 
-0.0328412 -0.0195 -0.0639 -0.834383 -0.551185 -0 
-0.0257137 -0.0275772 -0.0639 -0.657947 -0.753064 -0 
-0.016425 -0.033775 -0.0639 -0.450262 -0.892896 -0 
-0.00560803 -0.0376711 -0.0639 -0.227833 -0.9737 -0 
0.006 -0.039 -0.0639 1.47325e-07 -1 0 
0.017608 -0.0376711 -0.0639 0.227833 -0.9737 0 
0.028425 -0.033775 -0.0639 0.450262 -0.892896 0 
0.0377137 -0.0275772 -0.0639 0.657947 -0.753064 0 
0.0448412 -0.0195 -0.0639 0.834383 -0.551185 0 
0.0493218 -0.0100939 -0.0639 0.956101 -0.293039 0 
0.05085 0 -0.05085 0.990116 3.37558e-05 -0.14025 
0.0493218 0.0100939 -0.05085 0.947654 0.290749 -0.131972 
0.0448412 0.0195 -0.05085 0.828891 0.548006 -0.112383 
0.0377137 0.0275772 -0.05085 0.655259 0.750458 -0.0863102 
0.028425 0.033775 -0.05085 0.449308 0.891423 -0.0590489 
0.017608 0.0376711 -0.05085 0.22761 0.973133 -0.0347185 
0.006 0.039 -0.05085 -2.94306e-05 0.999889 -0.0149319 
-0.00560803 0.0376711 -0.05085 -0.227833 0.9737 0.000115511 
-0.016425 0.033775 -0.05085 -0.450235 0.892858 0.00959513 
-0.0257137 0.0275772 -0.05085 -0.657885 0.752998 0.0134675 
-0.0328412 0.0195 -0.05085 -0.834312 0.551134 0.0132484 
-0.0373218 0.0100939 -0.05085 -0.956044 0.293017 0.0110005 
-0.03885 -1.25435e-17 -0.05085 -0.999962 -2.28289e-06 0.00877112 
-0.0373218 -0.0100939 -0.05085 -0.956072 -0.29303 0.00777433 
-0.0328412 -0.0195 -0.05085 -0.834358 -0.551168 0.007803 
-0.0257137 -0.0275772 -0.05085 -0.657928 -0.753044 0.00738386 
-0.016425 -0.033775 -0.05085 -0.450256 -0.892888 0.00449014 
-0.00560803 -0.0376711 -0.05085 -0.227835 -0.973696 -0.00276786 
0.006 -0.039 -0.05085 -3.24458e-05 -0.999865 -0.016457 
0.017608 -0.0376711 -0.05085 0.227568 -0.973037 -0.0375776 
0.028425 -0.033775 -0.05085 0.449143 -0.891161 -0.0640574 
0.0377137 -0.0275772 -0.05085 0.654896 -0.750076 -0.0921765 
0.0448412 -0.0195 -0.05085 0.828399 -0.547671 -0.117523 
0.0493218 -0.0100939 -0.05085 0.947283 -0.290585 -0.134962 
0.054644 0 -0.0378 0.874111 0.000256648 -0.485726 
0.0530546 0.0101949 -0.0378 0.847215 0.265091 -0.460385 
0.0483949 0.019695 -0.0378 0.761294 0.513013 -0.396548 
0.0409823 0.0278529 -0.0378 0.620358 0.723704 -0.302338 
0.031322 0.0341127 -0.0378 0.435391 0.878971 -0.194535 
0.0200724 0.0380478 -0.0378 0.223259 0.97016 -0.0945723 
0.008 0.03939 -0.0378 -2.96076e-05 0.999888 -0.0149388 
-0.00407236 0.0380478 -0.0378 -0.224465 0.973605 0.0413402 
-0.015322 0.0341127 -0.0378 -0.444061 0.893241 0.0702208 
-0.0249823 0.0278529 -0.0378 -0.651028 0.755596 0.0723723 
-0.0323949 0.019695 -0.0378 -0.829532 0.555595 0.0564844 
-0.0370546 0.0101949 -0.0378 -0.954383 0.29658 0.0345506 
-0.038644 -1.26689e-17 -0.0378 -0.999818 -1.41987e-05 0.0190664 
-0.0370546 -0.0101949 -0.0378 -0.954789 -0.296773 0.0174204 
-0.0323949 -0.019695 -0.0378 -0.830485 -0.556348 0.0277919 
-0.0249823 -0.0278529 -0.0378 -0.652167 -0.756986 0.0406329 
-0.015322 -0.0341127 -0.0378 -0.444775 -0.894573 0.0437491 
-0.00407236 -0.0380478 -0.0378 -0.224656 -0.974081 0.0263926 
0.008 -0.03939 -0.0378 -6.8593e-05 -0.999738 -0.0228719 
0.0200724 -0.0380478 -0.0378 0.222739 -0.968752 -0.109121 
0.031322 -0.0341127 -0.0378 0.432892 -0.874562 -0.218508 
0.0409823 -0.0278529 -0.0378 0.614829 -0.717434 -0.327526 
0.0483949 -0.019695 -0.0378 0.754269 -0.508043 -0.415897 
0.0530546 -0.0101949 -0.0378 0.842277 -0.263092 -0.470481 
0.0664745 0 -0.02475 0.791425 0.000373519 -0.611266 
0.0646865 0.0101949 -0.02475 0.771557 0.26157 -0.579897 
0.0594443 0.019695 -0.02475 0.700087 0.509876 -0.499904 
0.0511051 0.0278529 -0.02475 0.5753 0.723375 -0.381784 
0.0402372 0.0341127 -0.02475 0.405308 0.879976 -0.247723 
0.0275814 0.0380478 -0.02475 0.207831 0.970101 -0.125344 
0.014 0.03939 -0.02475 -8.82699e-05 0.999554 -0.0298499 
0.0004186 0.0380478 -0.02475 -0.20992 0.977058 0.0359409 
-0.0122372 0.0341127 -0.02475 -0.419297 0.905337 0.0674901 
-0.0231051 0.0278529 -0.02475 -0.624552 0.778227 0.065565 
-0.0314442 0.019695 -0.02475 -0.81118 0.583369 0.0408396 
-0.0366865 0.0101949 -0.02475 -0.948542 0.316527 0.00893408 
-0.0384745 -1.26689e-17 -0.02475 -0.999919 6.58017e-06 -0.0127226 
-0.0366865 -0.0101949 -0.02475 -0.948483 -0.31654 -0.013498 
-0.0314442 -0.019695 -0.02475 -0.81182 -0.583896 0.00362488 
-0.0231051 -0.0278529 -0.02475 -0.625722 -0.779649 0.0248755 
-0.0122372 -0.0341127 -0.02475 -0.420107 -0.906841 0.0338969 
0.0004186 -0.0380478 -0.02475 -0.21012 -0.977526 0.0171027 
0.014 -0.03939 -0.02475 -0.000134569 -0.999208 -0.0397866 
0.0275814 -0.0380478 -0.02475 0.207058 -0.96774 -0.14355 
0.0402372 -0.0341127 -0.02475 0.401478 -0.872788 -0.277592 
0.0511051 -0.0278529 -0.02475 0.566634 -0.713118 -0.412782 
0.0594443 -0.019695 -0.02475 0.688888 -0.501692 -0.5232 
0.0646865 -0.0101949 -0.02475 0.763604 -0.258321 -0.591759 
0.0751389 0 -0.0117 0.931032 0.000182135 -0.364937 
0.0731919 0.0103968 -0.0117 0.883018 0.323615 -0.339931 
0.0674837 0.020085 -0.0117 0.753114 0.594563 -0.281629 
0.0584033 0.0284045 -0.0117 0.577534 0.789567 -0.207459 
0.0465695 0.0347882 -0.0117 0.385569 0.91282 -0.134522 
0.0327886 0.0388012 -0.0117 0.191853 0.978605 -0.0743245 
0.018 0.04017 -0.0117 -8.79833e-05 0.999556 -0.0298031 
0.00321136 0.0388012 -0.0117 -0.192698 0.981258 0.000278324 
-0.0105695 0.0347882 -0.0117 -0.389855 0.920763 0.0144514 
-0.0224033 0.0284045 -0.0117 -0.591803 0.805982 0.0127421 
-0.0314837 0.020085 -0.0117 -0.786584 0.617483 -0.000320699 
-0.0371919 0.0103968 -0.0117 -0.939617 0.341793 -0.0172612 
-0.0391389 -1.29198e-17 -0.0117 -0.999588 2.01059e-05 -0.0286891 
-0.0371919 -0.0103968 -0.0117 -0.939379 -0.341697 -0.0284853 
-0.0314837 -0.020085 -0.0117 -0.786433 -0.617394 -0.0186252 
-0.0224033 -0.0284045 -0.0117 -0.591825 -0.806037 -0.00690217 
-0.0105695 -0.0347882 -0.0117 -0.3899 -0.920856 -0.00149757 
0.00321136 -0.0388012 -0.0117 -0.192697 -0.981221 -0.00854316 
0.018 -0.04017 -0.0117 -9.90212e-05 -0.999408 -0.0344045 
0.0327886 -0.0388012 -0.0117 0.191642 -0.977955 -0.0829317 
0.0465695 -0.0347882 -0.0117 0.384587 -0.910898 -0.149526 
0.0584033 -0.0284045 -0.0117 0.57513 -0.786574 -0.224784 
0.0674837 -0.020085 -0.0117 0.749575 -0.591816 -0.296464 
0.0731919 -0.0103968 -0.0117 0.880194 -0.322344 -0.348356 
0.077305 0 0.00135 0.996677 2.18485e-05 -0.0814583 
0.0753183 0.0103968 0.00135 0.932606 0.353282 -0.0737364 
0.0694936 0.020085 0.00135 0.772728 0.632162 -0.0571173 
0.0602279 0.0284045 0.00135 0.575308 0.817045 -0.0382016 
0.0481525 0.0347882 0.00135 0.375987 0.926376 -0.0214679 
0.0340904 0.0388012 0.00135 0.184939 0.982711 -0.00877523 
0.019 0.04017 0.00135 1.31389e-07 1 -4.48333e-09 
0.00390955 0.0388012 0.00135 -0.184951 0.982732 0.00552956 
-0.0101525 0.0347882 0.00135 -0.376096 0.92655 0.00757333 
-0.0222279 0.0284045 0.00135 -0.575795 0.817571 0.00610849 
-0.0314936 0.020085 0.00135 -0.774102 0.633057 0.00212991 
-0.0373183 0.0103968 0.00135 -0.935215 0.354071 -0.00258285 
-0.039305 -1.29198e-17 0.00135 -0.999984 1.54251e-06 -0.00560517 
-0.0373183 -0.0103968 0.00135 -0.935205 -0.354068 -0.00529454 
-0.0314936 -0.020085 0.00135 -0.7741 -0.633059 -0.00223904 
-0.0222279 -0.0284045 0.00135 -0.575804 -0.817586 0.00147833 
-0.0101525 -0.0347882 0.00135 -0.376104 -0.926569 0.00384989 
0.00390955 -0.0388012 0.00135 -0.184954 -0.982741 0.00348171 
0.019 -0.04017 0.00135 -5.65136e-07 -0.999999 -0.00107012 
0.0340904 -0.0388012 0.00135 0.184932 -0.982692 -0.0108216 
0.0481525 -0.0347882 0.00135 0.375945 -0.9263 -0.0251806 
0.0602279 -0.0284045 0.00135 0.575189 -0.8169 -0.0427956 
0.0694936 -0.020085 0.00135 0.772527 -0.632005 -0.0614194 
0.0753183 -0.0103968 0.00135 0.932428 -0.35319 -0.0763862 
0.077305 0 0.0144 1 0 0 
0.0753183 0.0103968 0.0144 0.934102 0.357007 0 
0.0694936 0.020085 0.0144 0.771098 0.636717 0 
0.0602279 0.0284045 0.0144 0.572027 0.820235 0 
0.0481525 0.0347882 0.0144 0.372914 0.927866 0 
0.0340904 0.0388012 0.0144 0.183183 0.983079 0 
0.019 0.04017 0.0144 1.4575e-07 1 0 
0.00390955 0.0388012 0.0144 -0.183184 0.983079 0 
-0.0101525 0.0347882 0.0144 -0.372914 0.927866 0 
-0.0222279 0.0284045 0.0144 -0.572027 0.820235 0 
-0.0314936 0.020085 0.0144 -0.771098 0.636717 0 
-0.0373183 0.0103968 0.0144 -0.934102 0.357008 0 
-0.039305 -1.29198e-17 0.0144 -1 -2.11933e-16 0 
-0.0373183 -0.0103968 0.0144 -0.934102 -0.357008 -0 
-0.0314936 -0.020085 0.0144 -0.771098 -0.636717 -0 
-0.0222279 -0.0284045 0.0144 -0.572027 -0.820235 -0 
-0.0101525 -0.0347882 0.0144 -0.372914 -0.927866 -0 
0.00390955 -0.0388012 0.0144 -0.183184 -0.983079 -0 
0.019 -0.04017 0.0144 1.4575e-07 -1 0 
0.0340904 -0.0388012 0.0144 0.183183 -0.983079 0 
0.0481525 -0.0347882 0.0144 0.372914 -0.927866 0 
0.0602279 -0.0284045 0.0144 0.572027 -0.820235 0 
0.0694936 -0.020085 0.0144 0.771098 -0.636717 0 
0.0753183 -0.0103968 0.0144 0.934102 -0.357007 0 
0.077305 0 0.02745 1 0 0 
0.0753183 0.0103968 0.02745 0.934102 0.357007 0 
0.0694936 0.020085 0.02745 0.771098 0.636717 0 
0.0602279 0.0284045 0.02745 0.572027 0.820235 0 
0.0481525 0.0347882 0.02745 0.372914 0.927866 0 
0.0340904 0.0388012 0.02745 0.183183 0.983079 0 
0.019 0.04017 0.02745 1.4575e-07 1 0 
0.00390955 0.0388012 0.02745 -0.183184 0.983079 0 
-0.0101525 0.0347882 0.02745 -0.372914 0.927866 0 
-0.0222279 0.0284045 0.02745 -0.572027 0.820235 0 
-0.0314936 0.020085 0.02745 -0.771098 0.636717 0 
-0.0373183 0.0103968 0.02745 -0.934102 0.357008 0 
-0.039305 -1.29198e-17 0.02745 -1 -2.11933e-16 0 
-0.0373183 -0.0103968 0.02745 -0.934102 -0.357008 -0 
-0.0314936 -0.020085 0.02745 -0.771098 -0.636717 -0 
-0.0222279 -0.0284045 0.02745 -0.572027 -0.820235 -0 
-0.0101525 -0.0347882 0.02745 -0.372914 -0.927866 -0 
0.00390955 -0.0388012 0.02745 -0.183184 -0.983079 -0 
0.019 -0.04017 0.02745 1.4575e-07 -1 0 
0.0340904 -0.0388012 0.02745 0.183183 -0.983079 0 
0.0481525 -0.0347882 0.02745 0.372914 -0.927866 0 
0.0602279 -0.0284045 0.02745 0.572027 -0.820235 0 
0.0694936 -0.020085 0.02745 0.771098 -0.636717 0 
0.0753183 -0.0103968 0.02745 0.934102 -0.357007 0 
